# .PCD v0.7 - Point Cloud Data file format
VERSION 0.7
FIELDS x y z
SIZE 4 4 4
TYPE F F F
COUNT 1 1 1
WIDTH 1394
HEIGHT 1
VIEWPOINT 0 0 0 1 0 0 0
POINTS 1394
DATA ascii
-0.00050550327 -0.14653663 0.35082799
0.207665 0.19196372 0.086304151
-0.207665 -0.18293469 0.15880096
-0.19717699 -0.16608474 -0.20572418
-0.19717699 0.15814239 0.33152732
0.19508 -0.19630486 -0.09821973
0.19507998 0.13693804 -0.30681652
-0.207665 0.09999568 -0.24864843
-0.207665 -0.1326206 0.20754288
-0.11583237 -0.201372 0.26290956
0.072636738 0.1199116 0.35082799
0.16698365 0.289473 0.073960066
-0.207665 0.010466777 0.10974387
-0.049032807 -0.201372 -0.119759
0.207665 0.25937796 -0.14458187
0.207665 0.27128136 0.29036397
-0.16655791 0.029211327 0.33824301
0.13680398 -0.046376936 0.35082799
0.20124526 -0.21395901 -0.20291831
0.095298856 0.25691694 0.35082799
-0.1500935 0.14509818 0.33824301
-0.0096338168 0.027661376 -0.33824301
-0.04488796 0.031367294 0.35082799
0.19508001 0.00032851845 0.013546499
0.17068511 0.289473 -0.095787048
-0.051731423 0.10096943 0.35082799
-0.14906256 -0.1906313 0.35082799
-0.207665 -0.077901557 0.052325919
0.05858947 -0.042713687 0.35082799
0.20347001 -0.052964643 -0.29140902
0.095752418 0.054674763 0.35082799
-0.12216587 -0.289473 -0.33903164
0.17677461 0.12226303 -0.33824301
0.098449886 -0.072041623 0.33824301
0.027142227 -0.201372 -0.26778653
0.207665 0.01610937 -0.010355651
-0.19717699 -0.049044747 0.025650412
-0.20455499 -0.201372 -0.25908232
0.19508 0.19318917 0.30728725
0.075079426 -0.21395899 0.27323017
-0.13712552 -0.20354782 0.33824301
-0.089907177 -0.10646002 -0.35082799
0.207665 0.012455491 0.32446867
-0.20381577 -0.12149455 -0.33824301
-0.19009715 -0.0072590411 0.33824301
-0.207665 0.055186164 0.24012624
-0.15197352 0.10767185 -0.33824301
-0.19717699 0.096003979 -0.064008757
0.0010727951 0.064333282 0.33824301
0.17486566 0.19406401 -0.19059417
-0.207665 0.23349696 -0.016918525
0.20347001 -0.037075866 0.09538658
-0.207665 -0.20141071 0.16680485
0.042561412 0.21116489 0.35082799
-0.074782796 -0.201372 0.32884353
0.15130925 -0.21395899 -0.055546168
-0.207665 -0.092163682 -0.21051477
0.19508001 0.28784838 0.27130702
-0.19717699 -0.18356331 0.29451871
0.207665 0.27469772 -0.044226091
0.14223599 0.19083831 0.12823431
0.17925631 -0.201372 0.032654777
-0.19717699 0.11918931 -0.2863276
-0.19717699 0.23885472 -0.28241855
-0.20619524 -0.21395901 0.083259627
-0.17521927 -0.21395898 -0.21401495
-0.19717699 0.27854294 -0.15470994
0.18477553 0.276887 -0.30126044
0.14387225 0.014239229 -0.35082799
-0.058444835 -0.289473 -0.34607035
-0.207665 0.23911285 0.13227758
0.19601317 0.18564001 -0.33652472
0.14613141 0.276887 0.25696874
-0.1776666 -0.17187411 0.33824301
-0.19717699 -0.085500151 0.27469003
-0.19717699 0.11311425 0.27345446
-0.056405414 -0.201372 0.20796445
-0.10691336 -0.201372 0.033927597
0.11869706 -0.21395901 -0.2446477
-0.13073157 0.031198621 -0.35082799
-0.19717699 0.28436458 0.26735923
-0.207665 -0.16676365 0.29425243
-0.19501545 0.014944032 0.33824301
0.14326374 -0.067287549 0.33824301
-0.19717699 0.14047381 0.073643684
0.19508 -0.14981425 0.022897929
0.19508 0.22838733 -0.22823322
0.04896469 -0.2448094 0.33824301
-0.20702991 0.0869129 -0.35082799
0.207665 0.036644496 -0.029159153
-0.207665 0.012623176 0.039138079
-0.20766501 -0.16173837 0.28550965
-0.207665 0.11629488 -0.20902668
-0.207665 0.027075574 0.18797846
0.19508 0.038610525 -0.32023168
0.14223599 0.19172384 0.12974545
0.207665 0.074641377 0.30025497
0.093145959 -0.201372 -0.10266271
-0.207665 0.13589345 -0.065694153
-0.207665 -0.16587456 0.30558321
-0.0071573779 -0.15205961 0.33824301
-0.067011394 -0.26488641 0.33824301
-0.14149892 0.14432728 0.33824301
0.20346999 0.0080778301 -0.21952653
0.18636282 0.11256142 -0.33824301
0.073008396 -0.201372 0.00078770518
-0.19971573 0.11779289 -0.35082799
0.19508 0.058128595 -0.30275142
-0.207665 0.076806054 -0.12766635
-0.048558719 -0.13776346 -0.33824301
-0.0017530769 0.2591604 -0.33824301
-0.207665 -0.020029023 0.064217955
-0.19717699 -0.19849724 0.20904717
-0.1381823 -0.201372 0.20066984
0.022885535 -0.19087303 0.35082799
-0.19717699 -0.13385732 0.1997152
0.20347002 -0.030101795 0.083255038
0.093940467 -0.0045782775 0.35082799
-0.013491787 -0.201372 0.33769
-0.052156072 -0.091860652 0.33824301
0.207665 0.27469799 -0.34847438
0.19508 0.13928095 0.27279776
0.19508 0.14927739 -0.068044953
0.207665 -0.18675518 -0.0057521919
-0.043552246 -0.201372 -0.099149607
-0.207665 -0.10068777 0.064100303
-0.16432521 -0.289473 -0.34212658
-0.13213208 -0.21395899 -0.18670046
-0.207665 0.28790075 0.052657217
-0.207665 -0.15632981 0.17770928
0.199275 -0.095280468 0.051985897
-0.19717699 0.099948317 -0.22292838
-0.207665 -0.10676201 -0.0054611042
-0.207665 -0.076338872 -0.18489885
-0.207665 -0.10931461 -0.17316929
-0.10638177 0.19216733 -0.35082799
0.20346999 0.13810062 0.29690546
0.19969226 0.19193301 0.059717167
-0.15624911 0.0038906783 0.35082799
-0.13053752 0.15228456 0.35082799
-0.20487469 -0.201372 -0.33254793
0.207665 0.2018805 0.066837825
-0.029862314 -0.21395901 0.23506781
0.19508001 0.2758199 -0.19296324
0.0040132282 -0.055781461 0.33824301
-0.049438052 -0.21395899 0.1938678
-0.207665 0.20690218 0.133545
-0.072536148 -0.201372 0.0025718138
0.20347001 -0.19882511 0.29810014
-0.19717699 0.13041821 -0.045804381
-0.047345139 -0.201372 -0.024256282
-0.18502299 -0.201372 0.21281382
-0.14001885 -0.14020589 0.33824301
-0.207665 -0.14629684 -0.25217897
0.19507998 0.090141848 0.33961609
0.091492288 -0.201372 -0.3090618
0.19927499 -0.17058198 0.29919097
-0.207665 -0.079878882 -0.15715675
-0.18901756 -0.033712268 0.35082799
-0.18088275 -0.21395898 -0.18552896
-0.090305626 0.18230505 0.33824301
0.059178114 -0.012168996 -0.35082799
-0.16884771 -0.201372 0.31147814
-0.057733312 -0.067778111 -0.35082799
0.19508001 -0.14596729 -0.33583501
-0.059655938 -0.22633663 0.33824301
-0.19717699 -0.18610454 0.055445284
-0.19717699 0.21734332 -0.31150013
0.0078803338 0.2854614 -0.35082799
0.19508 0.2240828 0.17060642
0.028530151 -0.21395898 0.035308897
-0.077279083 -0.201372 0.0057249889
-0.19921243 0.289473 -0.15361217
-0.092463553 -0.21395899 0.10736869
-0.078251503 -0.289473 0.34841272
-0.16088338 -0.15992489 0.35082799
0.19508001 0.24161446 -0.13281842
0.20347001 0.12965316 -0.26225662
-0.081107415 -0.039056629 -0.33824301
0.1507906 0.17678264 0.33824301
0.101215 -0.201372 0.21246743
-0.19717699 -0.15052909 -0.11829337
0.207665 0.15812448 -0.16099261
0.13751455 -0.201372 -0.10328979
-0.207665 0.082621679 -0.19616026
-0.070316114 0.21191972 -0.33824301
0.16038924 -0.21395899 -0.23981175
0.09575887 -0.28637791 0.33824301
-0.10426885 -0.055723339 -0.35082799
-0.207665 0.01980643 -0.3027069
-0.15165657 -0.201372 -0.16038644
-0.19717699 -0.11820219 -0.034284122
-0.207665 -0.079022981 0.2140774
-0.207665 -0.15781704 -0.073700041
-0.025372468 -0.052193362 -0.35082799
0.0047529936 -0.201372 -0.0052160919
-0.17830999 -0.20100641 -0.33824301
-0.11290471 -0.21395901 -0.28190827
-0.11567167 -0.20137198 -0.13379842
0.19619289 -0.21395899 0.14427593
0.19508 0.18135479 -0.24506012
0.11690608 0.24263388 -0.35082799
0.19658943 -0.21395898 0.037750691
0.19508001 0.043506637 -0.30058321
0.036337554 0.14468205 0.35082799
0.18605101 0.19918418 -0.33824301
0.062537253 -0.21395899 0.16934769
0.10365808 -0.082641795 -0.33824301
-0.014877781 -0.034714788 -0.35082799
-0.048839346 -0.201372 0.15430507
0.20347002 0.048605587 0.16621524
-0.033230934 -0.048622362 -0.35082799
0.19508 -0.19803864 0.050945867
0.078719087 -0.20137198 0.14518438
0.19508 0.21584488 -0.25243741
-0.19717699 0.0015780479 0.15130776
-0.094903789 -0.201372 -0.16313657
0.19508 -0.097564071 -0.3108311
0.13539807 0.18164662 -0.35082799
0.071535259 0.2559804 -0.35082799
0.099007912 -0.17519793 0.33824301
-0.075073123 -0.201372 0.13109785
0.063009799 0.094481833 0.35082799
-0.17166857 0.15680262 0.33824301
0.070733294 -0.14982907 0.33824301
-0.15512213 -0.28137714 -0.35082799
-0.207665 0.16958641 -0.31527689
-0.16259333 -0.21395901 0.031067178
0.026861466 -0.28940398 0.35082799
-0.19717699 0.076960906 0.10891285
0.03687083 0.20347293 0.33824301
-0.207665 0.17905296 0.27791834
0.19508 -0.17069614 -0.33065876
-0.207665 0.062868088 -0.20568508
0.207665 0.071421757 -0.31064117
-0.19717699 0.12270997 -0.26741928
-0.022736881 -0.19015187 0.33824301
-0.17881162 0.27359438 0.33824301
-0.1350394 0.17473955 -0.35082799
0.052020438 -0.051211804 -0.35082799
0.076880306 -0.21395899 0.2878983
-0.19717699 -0.15506841 0.17061579
0.084685132 -0.21395899 0.16670686
-0.19717699 -0.10003527 -0.30539483
0.20347001 -0.12408651 -0.1079067
-0.207665 0.037209317 -0.037670463
0.18516004 0.21766868 -0.35082799
0.1164275 -0.201372 -0.27981949
-0.094548799 -0.201372 -0.16700138
-0.19717699 -0.036749929 -0.0028150678
0.13584948 0.20377854 -0.35082799
0.19508 0.25621203 -0.32299823
0.055273142 -0.11039597 0.35082799
0.13163871 -0.21395901 -0.16129655
-0.20766501 -0.06348455 0.27320302
0.02527966 -0.26030722 -0.35082799
-0.19717699 0.20187707 -0.2812252
-0.19717699 -0.030667756 0.14366531
-0.207665 -0.18880971 0.30948403
0.13876903 0.289473 -0.34697241
-0.20766501 -0.12453493 -0.28552309
-0.012130678 -0.201372 0.25702748
-0.082048014 -0.21395898 -0.24768808
-0.207665 0.032706771 -0.11454512
-0.19717699 0.091598623 -0.25841859
0.20347002 -0.096955568 0.23139542
0.19508 -0.07825774 0.043372013
-0.20766501 -0.28715253 0.34184405
0.1909737 -0.1328968 -0.35082799
-0.19717699 -0.15963417 -0.12683265
0.1414949 0.19184205 -0.33824301
-0.2017251 -0.201372 -0.026653394
-0.11986329 -0.21395898 0.11307118
0.207665 -0.059046857 -0.29811245
0.15956387 -0.201372 -0.0470469
-0.19717699 0.22142178 -0.075407118
0.032927461 -0.201372 0.034777984
0.205567 -0.15386738 -0.17769188
0.207665 -0.082309477 -0.0055931532
0.19508 0.18115188 -0.025504965
0.18616191 0.19406402 -0.21325764
-0.207665 0.0089503303 0.090612352
-0.207665 0.23514839 -0.22129676
0.13237092 0.24791518 0.33824301
-0.19717699 0.13805872 -0.0042446926
-0.052007996 0.25319582 0.35082799
-0.19717698 -0.15810086 -0.25870234
-0.19717699 0.19166125 -0.20811598
0.19508 0.04181689 0.33870074
0.18245296 0.19406401 -0.07588993
0.14408338 0.18147799 -0.034322917
-0.207665 0.050221346 0.28873563
-0.207665 0.02986728 -0.16393951
0.084284991 -0.201372 -0.070795298
-0.037632965 -0.23650867 0.35082799
-0.10418356 -0.201372 0.17162405
0.19045262 -0.21395899 0.020200251
-0.207665 -0.061862662 0.06617786
0.207665 -0.14328659 -0.29629388
0.14223599 0.2832171 0.17883533
-0.207665 -0.070941143 -0.094067037
-0.207665 -0.17368236 -0.30786994
0.20559801 -0.21395899 -0.34973621
-0.022914484 -0.201372 0.12725045
-0.15685028 -0.090282731 0.35082799
-0.14017323 0.26452667 0.35082799
-0.207665 -0.21350753 -0.057154298
0.19507998 -0.10021274 0.29734844
-0.20644191 0.289473 0.23724656
-0.207665 0.018723965 0.32953656
0.20347002 -0.028649943 0.071378529
0.051834751 -0.201372 -0.033814486
0.207665 -0.17721854 0.33779943
0.20347001 0.031670459 0.15483852
0.010292262 -0.21395899 0.21627808
0.207665 -0.028076522 -0.039983664
0.19508 0.13530792 0.21765976
-0.020619689 0.074721016 0.35082799
-0.207665 -0.058929503 -0.044952389
0.207665 -0.055559926 -0.05514583
0.207665 0.18223953 -0.20266241
0.01020971 -0.201372 -0.045302317
0.20347001 -0.04222206 0.13383131
0.207665 0.15439963 -0.31023651
-0.207665 0.28567445 0.024580747
-0.044139348 -0.18808831 -0.35082799
-0.19717698 0.12017635 0.13390139
-0.1785744 0.069187693 -0.33824301
0.064004317 -0.090213485 0.33824301
0.065288886 -0.21395901 0.18655936
-0.025880948 0.21810412 -0.33824301
-0.18116075 0.18339922 -0.35082799
-0.19717699 0.22088787 0.17521816
0.2011764 0.04431951 -0.00052405999
-0.19717699 0.088526852 0.010808526
-0.19717699 0.28448349 -0.087702669
0.19508001 0.15327267 0.17515193
0.205567 -0.038093444 -0.057400823
0.20346999 0.040682036 0.2124926
-0.11591101 -0.21395901 -0.028851919
-0.13039792 -0.14730896 0.35082799
-0.19717699 0.26198056 -0.025949791
-0.11723998 0.28376845 -0.33824301
-0.19717699 0.12280784 -0.28626353
0.19507998 0.18334071 0.28318399
-0.20766501 0.15366438 -0.26260799
-0.207665 -0.14237246 0.28948435
0.207665 0.16988561 0.29354918
0.19219948 -0.19717327 0.35082802
0.20347001 0.11767654 -0.14489098
-0.068718322 -0.201372 0.3305524
-0.084310263 0.04254175 -0.33824301
-0.018934403 -0.15989959 -0.35082799
0.19926667 0.289473 0.12072407
0.046937678 0.10413013 -0.33824301
-0.081909887 -0.21395898 0.18031104
-0.207665 0.16209288 -0.22673383
-0.20766501 0.17981882 -0.27467024
0.060481049 -0.15635267 0.35082799
-0.0089868624 -0.25159815 -0.33824301
0.18704227 -0.012197919 -0.35082799
-0.088559099 0.22442636 -0.35082799
-0.14402315 -0.201372 -0.31619096
-0.069968864 0.0049440265 0.33824301
0.087293863 0.020633325 -0.35082799
-0.19717699 0.25573635 -0.18801652
0.2037451 -0.21395899 0.25718632
0.19508001 -0.15918639 -0.32186928
-0.20291182 -0.051660322 -0.35082799
0.11975042 0.22406302 -0.33824301
0.10681494 -0.28732568 0.35082799
0.19169457 0.072696626 0.33824301
0.207665 -0.21012524 0.053211227
0.017099429 -0.16374514 0.33824301
0.19508 0.072546005 0.05546727
-0.19717699 -0.19167651 -0.282796
0.19508 -0.21020678 0.31452847
-0.098296076 0.14626755 0.35082799
0.207665 0.23021182 -0.090366893
0.19507998 -0.16214259 -0.33758679
0.087436594 -0.19185841 0.35082799
-0.19611999 0.23065859 0.32328761
0.207665 0.20990089 0.3245517
0.19508 0.19820589 -0.1221902
-0.15462509 -0.21395898 0.10554318
-0.0079835504 -0.01546485 -0.33824301
-0.20045339 0.23910649 -0.33824301
0.20347001 -0.19240844 0.29474178
0.207665 0.1618468 -0.0047636204
-0.036766291 -0.201372 -0.10874218
-0.207665 0.26516697 0.080285706
-0.19717699 0.11950044 -0.13505962
0.033909168 -0.17219573 -0.35082799
-0.207665 0.14134721 0.29050946
-0.207665 0.0012280792 -0.220952
-0.10667031 0.03305281 0.33824301
0.1441676 0.21930158 0.33824301
0.1074048 -0.04343687 0.33824301
-0.026509367 0.13495773 0.35082799
-0.026404167 0.089542523 -0.33824301
-0.207665 0.20195034 0.12757248
0.1608144 -0.21395899 0.034237519
-0.10542572 0.289473 0.34890375
0.207665 -0.048855945 0.049179345
-0.19717699 -0.16768 -0.2933861
0.207665 0.14263943 0.2610676
-0.19717699 -0.11826512 0.20922142
0.15967101 0.276887 0.29094461
-0.20766498 -0.010755777 0.14681593
0.17652571 0.26282525 0.35082799
-0.09917073 -0.201372 0.051118299
-0.19017278 0.19097607 -0.35082799
-0.20535792 -0.21395898 0.15850881
0.19508 0.20372117 0.23941036
-0.066787906 0.10780161 0.33824301
-0.17326032 0.2436163 0.33824301
-0.207665 0.17289457 0.19538651
0.064529471 -0.063337192 -0.33824301
0.1010413 -0.13177323 -0.35082799
0.059640549 -0.21395898 0.19650912
0.066471063 -0.098472953 -0.33824301
-0.19717699 0.1071897 -0.25580627
-0.13565269 -0.201372 -0.086378217
-0.19717699 -0.030133884 -0.30371845
0.19508 0.27590051 0.17346114
-0.13537915 -0.201372 -0.18303747
0.0058234259 -0.201372 -0.22461082
0.17120318 0.289473 -0.086258985
-0.1990643 -0.21379416 0.33824304
-0.08227244 -0.092167586 -0.35082799
-0.025232939 -0.19855517 0.35082799
0.19815728 -0.13539705 -0.294193
0.031403728 -0.21395898 -0.15753983
-0.207665 -0.07186804 0.1781624
-0.067895293 0.094118863 0.35082802
0.207665 0.1148214 -0.014403858
0.2012226 0.19273607 -0.35082799
-0.12473346 -0.018632576 0.33824301
0.19370385 -0.19075844 -0.33824301
-0.015110992 -0.21395899 -0.013692617
0.12590677 -0.22536644 0.33824301
0.083038434 0.10193455 -0.35082799
0.14126632 0.16338636 0.35082799
0.10413781 0.12859246 -0.35082799
0.056212768 -0.201372 -0.26192573
0.04395989 -0.201372 -0.089212373
-0.13085659 0.079745382 -0.35082799
-0.0023817457 -0.16046718 -0.35082802
-0.17112532 -0.26167327 0.35082799
0.0552053 -0.201372 -0.1203973
-0.207665 0.21693638 0.049412332
0.15114427 -0.201372 0.12818506
0.20346999 -0.1065085 -0.065203249
-0.0093799969 -0.26943111 0.33824301
-0.087901913 -0.201372 0.26191452
-0.14618801 -0.21024312 -0.33824301
-0.021361381 -0.066043168 0.33824301
-0.207665 0.1834522 0.20840997
0.17280352 0.19406399 0.20926145
0.207665 -0.180388 0.019544687
-0.207665 0.07800518 0.28241253
-0.020298149 -0.18586883 -0.33824301
-0.038752325 -0.21395899 0.22851463
-0.061821416 -0.21395901 -0.21465516
0.19320138 0.19406399 0.17895146
-0.207665 -0.016967706 -0.23362443
0.19876033 0.129004 0.11585503
0.207665 0.26255438 -0.048208915
-0.1847249 0.11686666 0.35082799
-0.207665 0.16256219 -0.28894469
0.15439044 -0.19601236 0.33824301
-0.12136852 -0.21395898 0.0074303299
0.078825623 -0.201372 -0.3168883
-0.031520538 -0.095733739 -0.33824301
0.19704232 0.12710616 0.0571604
-0.16698465 -0.21627882 -0.35082799
0.098593585 -0.201372 -0.25357905
0.14223599 0.28504637 0.18428531
0.0019346774 -0.201372 -0.32738942
-0.054191671 -0.21395899 0.09474314
0.16269974 -0.201372 -0.27671176
-0.10810345 -0.21060881 -0.33824301
-0.086025871 -0.24415624 0.33824301
-0.19717699 -0.0082519427 0.28909934
0.207665 0.17119485 0.1262067
0.056533836 -0.056716029 -0.35082799
0.1638435 0.18147799 0.26227647
-0.19183204 -0.21395899 0.071503595
0.023440663 -0.098676614 0.33824301
0.17847621 0.19406401 -0.0088512525
-0.19626194 -0.21395901 -0.21621448
-0.052797433 -0.10553193 -0.33824301
0.0032114312 0.10530805 0.33824301
0.035115309 -0.201372 0.1947705
-0.207665 0.23505987 0.094758645
0.207665 0.26465011 0.018016867
-0.19717699 0.15051574 -0.13179851
-0.17073052 -0.201372 0.29818165
-0.1146742 -0.201372 -0.29384154
0.015419025 0.14487004 0.33824301
0.20766501 0.28501585 0.25930479
0.1612232 -0.21395899 -0.35069734
-0.19717699 -0.042278435 0.018552899
-0.02179048 0.084825456 0.35082799
0.065982908 -0.21395899 0.23016062
0.20237574 0.289473 0.18830872
0.065397061 -0.201372 -0.17078722
0.207665 -0.032009356 0.030809693
0.20346999 -0.049752407 0.091416962
-0.13433805 -0.093647018 0.35082799
0.097388208 -0.0030390024 -0.35082799
-0.19717699 0.23081987 0.24932881
-0.19717699 0.067815699 0.12126194
0.205567 -0.15125693 -0.096108504
-0.207665 -0.11950292 -0.15203854
0.05113586 -0.21395898 0.028378494
-0.19717699 -0.078247331 0.33213216
-0.18254822 0.14189073 -0.33824301
0.19508 0.18420053 0.27880862
0.13380776 0.26674828 0.35082799
-0.207665 -0.03431955 -0.15573382
-0.066411138 0.18649361 -0.33824301
-0.12567006 -0.21395899 0.16488868
-0.20480096 0.1779055 0.33824301
0.20347001 0.044862501 0.25244707
-0.207665 -0.11403095 0.061109155
0.021825962 0.027266737 0.33824301
-0.207665 0.1908537 0.11879341
-0.080879629 0.24164294 -0.33824301
-0.207665 -0.16293904 -0.18218647
0.14758219 -0.21395899 -0.18754518
0.068133861 -0.062556855 0.33824301
0.027380548 -0.16434146 -0.33824301
0.075094074 -0.201372 0.043314785
-0.090234041 -0.201372 0.29831499
-0.207665 0.12529105 0.31735477
0.15432154 0.276887 0.33653367
-0.19717699 -0.016262572 -0.23497194
0.13378276 0.18429095 -0.33824301
0.20346999 -0.0070969369 -0.19409463
-0.079566464 0.0070824772 0.33824301
-0.076296374 0.1845382 0.35082799
0.14430183 0.276887 0.10044546
0.14918163 0.2471786 -0.33824301
0.17959836 -0.201372 0.1393593
0.0034905672 -0.201372 0.076008812
0.12993932 -0.201372 0.013169639
0.0028941631 -0.201372 -0.32318103
0.054964919 -0.17814654 0.33824301
0.19508 0.2041392 0.26403841
-0.207665 0.14920481 -0.28661919
0.0027303398 -0.14394772 0.35082799
-0.1100714 0.10125893 -0.33824301
0.04267874 0.22228156 -0.33824301
0.020924473 -0.19170639 0.35082799
0.20347001 -0.070412286 0.19654608
0.207665 0.28463069 -0.27941847
-0.10040595 -0.21395898 0.047046915
0.039611913 0.25052437 -0.33824301
0.10788672 -0.21395901 0.14822012
0.031772196 0.064322338 -0.35082799
0.018885739 0.25716746 -0.33824301
-0.207665 -0.093211837 -0.1824071
0.17798725 -0.19222327 -0.35082799
0.20347001 -0.16237292 0.24360682
-0.14002803 0.21456218 -0.35082799
-0.084803827 0.061680667 0.33824301
0.1826528 0.18147799 0.15276815
0.20346999 0.11916193 0.29380739
0.10225588 0.078339361 0.33824301
0.1370814 -0.201372 -0.30980968
0.14223599 0.18526928 -0.28922239
-0.207665 -0.10938653 0.12809835
0.19150698 0.13622214 -0.33824301
-0.17293602 0.075533129 -0.33824301
0.19595149 -0.0093253069 -0.294193
0.16171856 0.075993434 -0.35082799
0.037146933 -0.21395901 -0.18999101
0.205567 0.12679912 0.18741512
0.20346999 -0.13334262 -0.20905532
-0.19717699 -0.025391124 0.020980205
-0.207665 -0.097990468 0.0045484006
0.085244536 -0.091655202 0.33824301
-0.207665 0.12140623 0.033982109
0.19475403 -0.21395901 0.14499514
0.207665 0.23181748 0.10124325
0.062813766 0.13762489 0.33824301
-0.19717699 -0.053064883 -0.1032131
0.19668142 0.289473 -0.2756229
-0.207665 0.15697131 -0.15480572
0.15606271 -0.21395899 0.14839758
0.20346999 0.004117284 0.22262961
-0.19717699 -0.021725081 0.087210119
0.207665 0.19309849 -0.14700232
-0.19717699 0.13917671 0.31665725
-0.13530473 -0.21395901 0.11577888
-0.207665 0.17286651 -0.034780875
0.207665 0.25184345 0.15338759
-0.052876756 -0.289473 0.3421765
-0.19717699 0.21865676 0.050603181
-0.19717699 0.086678408 -0.19546366
0.10739115 -0.21395901 -0.33015347
-0.207665 0.11071484 0.18693705
0.19845617 0.024581015 0.000524075
0.207665 -0.030683033 -0.056419406
0.199275 0.019654715 -0.29883346
0.033459514 0.064535826 -0.33824301
0.1960839 -0.036925443 0.0571604
-0.207665 0.055358559 -0.20561275
0.039261617 -0.10285872 -0.35082799
-0.1330398 -0.26310384 0.35082799
-0.093557857 -0.21395901 -0.1960277
0.16445608 0.088557877 -0.33824301
-0.19717699 0.18645982 -0.0060702264
0.19508 0.24533163 0.29880527
0.19508001 0.26477385 -0.16508475
-0.16415787 0.27417484 0.33824304
0.19508 0.20215005 0.321408
0.018411286 -0.12738204 0.35082799
0.207665 0.28909075 0.009611642
-0.207665 0.084890276 -0.032802708
-0.19717698 0.064371847 0.060652435
-0.15337203 -0.21395901 0.095368594
0.043155059 -0.21395898 0.10098684
0.19508 0.13450004 0.0052363146
-0.023559505 -0.23984915 0.35082799
-0.207665 0.015431575 0.29377699
-0.207665 -0.11144476 -0.24703722
0.17768857 0.21563733 -0.33824301
-0.207665 0.0032582879 0.014312267
0.19508 -0.21054642 -0.26628944
-0.20203051 0.13237423 -0.33824301
-0.19717699 0.19775397 -0.31462851
0.20612648 -0.157322 0.23753405
0.10792543 -0.201372 -0.045487426
-0.081516512 -0.21395898 -0.038948398
-0.10430667 -0.19776058 0.35082799
0.140541 -0.24674939 -0.33918393
-0.19717699 -0.057603206 0.19628099
0.061546307 0.25848931 0.33824301
0.19507998 -0.18542217 0.34222576
0.207665 0.13681822 0.015568962
0.13904582 -0.21395901 -0.058301792
-0.207665 0.18859515 -0.036881343
-0.11990453 -0.19405273 -0.33824301
-0.19717699 0.25642753 0.14965618
0.19508001 0.264824 0.12731081
-0.16516717 -0.21395899 0.30246711
-0.086715184 0.10251917 0.33824301
-0.20766501 0.11036951 -0.3500964
0.032904096 -0.10312957 0.35082799
0.069620006 -0.21395899 -0.24577999
-0.207665 0.1561188 -0.050874114
-0.19717699 0.26166809 0.24248792
-0.19298163 -0.201372 0.074571297
-0.207665 -0.12228972 0.34702694
-0.19717699 0.13651086 -0.26192471
-0.088886663 0.13186029 0.33824301
0.19507998 0.18313241 0.16636002
0.19508 -0.041965414 0.34659714
0.20347001 -0.14280662 -0.25787073
0.19508 0.24344972 -0.22317541
0.207665 -0.19300885 0.30299383
-0.048221759 0.15105994 -0.33824301
0.140541 -0.28401154 -0.34454799
0.048210412 -0.21395899 -0.29598969
0.20347001 0.11501344 -0.057106383
-0.069359392 0.14506197 -0.33824301
0.11683764 -0.20137198 0.076392651
0.083128832 -0.085215189 -0.33824301
-0.19717699 0.24523605 -0.26016778
-0.19717699 0.20026328 0.21913832
0.18130089 0.20990065 -0.33824301
0.16042116 0.276887 -0.24223654
-0.14662701 0.27506724 0.33824301
-0.19717699 -0.021055907 0.2889176
0.17273659 -0.201372 0.010353744
-0.207665 0.25419188 0.23718452
-0.1268045 -0.11506848 -0.35082799
-0.13443416 -0.201372 -0.081449278
-0.207665 -0.027745031 0.10979927
0.023010217 -0.201372 0.052942708
-0.207665 0.1573191 -0.31652784
-0.19717699 0.055272982 -0.27335912
-0.12478799 -0.201372 -0.099027
0.072346248 -0.201372 -0.070827201
-0.19717699 -0.1676596 0.19020933
-0.059240166 -0.18938863 0.33824301
-0.19717699 -0.08990214 -0.17387813
0.036471192 0.13455205 -0.35082799
-0.07330513 -0.201372 -0.31055069
0.17597595 -0.201372 0.16598882
-0.207665 0.18956923 0.046135604
-0.20766501 -0.12079722 0.13291526
0.19782467 0.18564001 -0.046010293
-0.15339759 0.023266241 -0.33824301
-0.19717699 0.17181779 0.1698592
0.15925092 -0.201372 0.0055247825
0.20623103 0.0041845031 0.29419202
-0.19717699 0.24369669 0.24835205
0.15799224 0.289473 -0.12980211
0.207665 -0.13819139 -0.051190928
0.207665 0.27041399 -0.27731514
0.19508 0.18843178 0.058403462
-0.13704281 -0.011913732 -0.35082799
0.13447203 -0.21395899 -0.29714125
0.207665 0.1328198 -0.228889
0.15069684 0.12746614 0.33824301
-0.097029455 -0.1712576 -0.33824301
-0.19717699 -0.12500595 0.30106133
-0.207665 0.2236298 0.060666211
-0.207665 -0.15033171 0.03286808
0.048211001 0.18087043 -0.35082799
-0.17947942 0.050354108 -0.35082799
-0.011736074 -0.075959265 -0.33824301
0.207665 -0.17888458 0.18509226
-0.0055400804 0.22879809 0.35082799
0.19225296 0.04851716 0.33824301
-0.207665 0.10184502 -0.1957382
0.10468945 0.058849905 0.35082799
0.14882308 0.276887 -0.27149293
-0.14401662 0.2826024 0.35082799
0.18318418 0.19406401 0.27719241
-0.014375851 -0.0052032322 -0.33824301
0.14223599 0.28720051 -0.098709494
-0.1469405 -0.201372 -0.33441773
-0.19717699 0.022855109 -0.23250805
0.10631072 -0.201372 -0.14206848
-0.15724486 -0.201372 0.085640311
-0.19717699 0.20415731 0.015114844
0.19508001 0.099727951 0.32422775
0.081379823 -0.201372 -0.06891343
0.012151562 -0.201372 -0.14091942
0.207665 -0.14090997 -0.34173763
0.207665 0.19609255 0.32202658
0.16461568 -0.13581452 0.35082799
-0.0033354163 0.27079338 0.35082799
-0.0598245 0.02773889 -0.33824301
0.037602216 0.22179081 0.35082799
0.19508001 0.19247663 0.071414173
0.061091237 -0.14130643 0.33824301
0.12953524 -0.201372 0.30564147
0.0085010827 0.061718285 0.35082799
-0.098201185 -0.21395899 -0.29453382
0.14937103 0.276887 -0.23748186
-0.19717699 0.079878911 0.24668361
-0.091607973 0.040913027 0.35082799
-0.15077324 -0.21089701 0.33824301
0.10494746 0.26962686 -0.33824301
0.207665 0.19247201 0.021927491
0.207665 0.2815176 0.10766651
-0.207665 -0.19667988 0.22493809
-0.207665 0.062110126 -0.2172156
-0.19374153 -0.12512861 0.33824301
-0.19717699 0.18219775 -0.055722177
-0.207665 0.21396402 -0.17243965
0.10102443 -0.22207947 0.35082799
0.16715075 -0.201372 0.16399108
0.20347001 -0.046357751 0.25499576
-0.10441966 -0.067965955 0.33824301
-0.12877598 0.051603917 0.33824301
0.19508 0.083367325 0.019634955
0.19508 0.17971028 0.26751816
0.15514062 -0.11571807 -0.33824301
-0.081484139 -0.033510059 -0.35082799
0.11459803 0.13236229 0.33824301
-0.14450283 -0.1265337 -0.35082799
0.0012033321 0.05583455 -0.33824301
-0.207665 0.17769957 0.26592547
0.017450478 -0.19223607 0.33824301
-0.10066572 -0.21395898 -0.27444509
0.19508 0.14105345 -0.20202801
0.12553063 -0.20137198 0.10643204
-0.207665 -0.05362875 -0.32333529
0.12293014 0.10296392 0.33824301
0.017645828 -0.21395899 0.32972121
0.20503414 0.18564001 0.25893724
-0.207665 0.28858757 0.29775879
0.19927499 -0.15845852 -0.24196638
0.036389269 0.13508996 0.33824301
0.20347001 -0.14143015 -0.074894741
-0.10318284 0.23287962 0.35082799
0.20027061 0.19193301 -0.21898538
0.082043707 0.10324766 -0.33824301
-0.045489341 -0.21395899 -0.26153561
0.20766498 0.20661385 0.15902503
0.19507998 -0.16875981 -0.30950096
-0.13661945 0.000297077 -0.33824301
-0.02236259 0.16911221 -0.35082799
0.205567 0.035809156 0.064291865
-0.11623989 -0.201372 0.18376347
-0.041586872 -0.21395901 0.22612971
0.207665 -0.058720239 0.02793668
-0.18036933 0.061653033 -0.33824301
-0.19717699 0.16095993 0.29940426
-0.16925673 -0.201372 0.21205106
-0.207665 0.085439064 0.33186746
-0.028982811 0.077777721 -0.35082799
0.20346999 -0.07151603 0.16997391
-0.10379693 0.22568932 -0.35082799
0.20347001 0.083995871 -0.19913784
-0.19717699 -0.0085799247 -0.15290496
0.16807364 -0.201372 0.2450234
0.207665 -0.1688776 0.31497318
-0.1621902 -0.28387821 0.33824301
0.10476279 0.042263564 0.33824301
-0.19717699 -0.14127088 -0.088952176
0.026425153 -0.28808805 -0.35082802
0.10214145 0.059195325 -0.35082799
0.015773859 0.028253615 0.35082799
0.207665 -0.1959464 -0.040917721
-0.051886573 -0.05402258 0.33824301
0.20346999 -0.12679449 -0.28897023
0.16054811 0.289473 0.16128884
0.09143284 -0.21395899 0.19615574
-0.085810311 -0.2495923 -0.33824301
0.199275 0.068942569 0.29933318
-0.1998204 -0.201372 0.24773842
-0.19717699 0.096735649 0.13229233
0.064359121 0.26397088 -0.33824301
-0.19717699 0.22809827 0.098132506
0.039522167 -0.21395899 0.13875037
0.1113324 0.24660534 0.35082799
-0.086148515 0.26356426 -0.35082799
0.044530805 -0.051434554 0.33824301
-0.15279938 -0.21395901 -0.11710817
0.024904316 -0.21395901 0.022870312
-0.207665 -0.070803232 -0.039215162
-0.06321454 -0.22903615 -0.33824301
-0.029308619 -0.21395898 -0.11555584
0.12430793 0.025733687 -0.33824301
0.1922029 0.276887 0.10196963
-0.19717699 -0.041652933 -0.16394156
-0.207665 -0.027973689 -0.28716418
-0.10851836 0.2321797 0.35082799
0.078150161 -0.21395898 0.007489264
0.20347001 0.12064209 0.27922967
-0.005230898 -0.201372 0.11363777
0.19507998 0.11591589 -0.3486374
-0.06051958 -0.12843955 -0.35082799
-0.14405729 -0.26657212 0.33824301
0.20347001 0.088540301 0.19729775
-0.207665 0.0047948891 -0.32717395
0.11505793 -0.021853551 0.33824301
0.20346999 -0.11150017 -0.11076149
-0.20766498 0.19757499 0.27617359
-0.067922555 0.16075861 0.35082799
0.19507998 0.11769536 0.046278253
-0.207665 0.22012019 -0.29312107
0.1082828 -0.21395901 0.23824006
0.001824962 0.032346901 0.33824301
-0.19717699 -0.043084398 0.3372944
-0.12805796 -0.21395901 -0.1453476
0.16684437 -0.095619962 0.35082799
-0.19717699 -0.17888844 -0.18271968
0.19006494 -0.201372 0.041754574
0.0099618584 0.24298085 0.33824301
0.17483701 0.276887 0.27820837
-0.18340924 0.14918363 -0.35082799
0.14842209 -0.027382642 -0.35082799
-0.16623372 0.04610838 0.35082799
-0.033182472 -0.21395899 0.28637308
0.207665 0.098808497 -0.024162121
-0.19717698 -0.081235811 -0.1903462
0.19508 0.016783863 0.010822722
0.20347001 -0.13390577 0.071722388
0.20347002 0.031145662 0.29097021
0.19508 0.26821685 -0.28961486
0.19508 0.1594267 0.089407384
-0.19717699 0.014327675 -0.22623765
-0.207665 -0.12163666 -0.19743527
-0.098559543 -0.21395898 0.33504432
-0.14512829 0.032631785 -0.35082799
-0.19717699 0.1815837 0.2015461
-0.19717699 0.24473538 0.19451229
-0.15292288 -0.21395901 -0.25211239
-0.207665 -0.21127065 0.10869694
0.16480242 0.19406401 0.13036856
0.0011684224 -0.201372 0.26246604
0.11296239 0.178883 -0.35082799
-0.20766501 -0.086958207 0.24979244
-0.0031053871 -0.21395899 0.069910295
-0.099002242 -0.21395898 -0.049697213
0.20346999 0.033051357 0.10953484
0.19507998 0.20127343 0.26023799
-0.19717699 0.10990019 -0.095514685
0.16858497 -0.12897709 -0.35082799
-0.207665 -0.17332155 0.25240615
0.207665 0.16137871 -0.2427776
0.11611259 0.079643644 0.35082799
0.11402009 -0.21395898 0.050690874
-0.207665 -0.012210146 -0.28147626
-0.04748166 -0.010617524 0.33824301
-0.092188768 -0.024072528 -0.35082799
-0.207665 0.089932233 0.12371717
0.19508 -0.033825807 0.0017076457
0.1152191 -0.201372 -0.33381736
0.207665 0.23335496 -0.24586116
0.207665 0.063746445 -0.029114433
-0.20389237 -0.21395899 0.11287718
0.15335537 -0.0019538146 0.35082799
-0.061092164 0.06334231 -0.35082799
-0.094601005 -0.090625979 0.33824301
-0.089728326 0.20717913 0.35082799
0.038686156 0.289473 -0.34567809
-0.19717699 0.17568789 -0.039146252
-0.19717699 0.23045288 0.22224386
-0.19717699 0.20523524 0.024653748
-0.207665 0.052169032 -0.055593997
0.040277578 0.23608059 0.33824301
0.024993706 0.05891978 0.33824301
0.098800212 -0.078877695 -0.35082799
0.18455514 -0.201372 -0.045405984
0.19507998 0.079073772 0.040253382
0.096161678 -0.11512391 0.33824301
0.19912663 0.19193301 -0.09908016
0.079759605 -0.21602815 0.33824301
0.207665 -0.14311944 -0.32045266
-0.19717699 0.20476085 -0.081949957
0.10139954 0.17867757 0.33824301
0.15871747 -0.21395898 0.1653603
0.055590898 -0.17067541 0.35082799
0.19508 0.1622393 -0.0525444
-0.207665 0.17645368 0.29461253
-0.04705302 -0.24720077 0.35082799
0.078029603 -0.201372 -0.23762193
-0.20766501 -0.14625648 -0.2382254
0.14223599 0.18939987 0.25679287
0.20347001 0.098911017 -0.29322353
-0.12381179 0.13840467 0.33824301
-0.17832586 0.054797389 -0.33824301
-0.20766501 0.063111641 0.1167234
-0.029527115 -0.10805731 0.35082799
0.19507998 0.21135244 0.14797921
-0.034651369 -0.21395898 0.15872657
-0.030067192 0.10060968 0.35082799
-0.207665 -0.079967052 -0.13043526
0.19508 0.24124286 -0.30532706
0.075338989 -0.21395898 0.30415782
-0.035902362 -0.14151274 0.35082799
-0.19717699 0.07498166 0.14674352
-0.207665 -0.14118282 -0.05100137
-0.088864341 0.0092547238 0.35082799
-0.10649818 -0.12359414 -0.35082799
-0.207665 0.18252051 -0.17634255
0.19508 -0.18792766 0.15874608
-0.20766501 0.15886171 -0.17767596
-0.0063076224 -0.22599401 -0.35082799
0.19508001 -0.013783231 -0.29859415
0.207665 -0.012288518 0.034466006
-0.15953436 0.28472435 0.35082799
-0.047166545 0.191397 -0.35082799
0.20347001 0.023262516 -0.23563723
0.16697857 -0.21395901 -0.26501071
0.205567 0.045038048 0.28580841
0.18066142 0.18147799 -0.30563983
-0.024923578 0.17206663 -0.33824301
-0.093356654 -0.21395899 -0.0050147772
-0.19717699 0.11262806 -0.2172752
-0.207665 0.21051133 0.25307959
0.18776318 0.18147799 0.239485
-0.19717699 -0.14138032 0.26226553
0.19507998 -0.03087604 0.3504557
-0.11915088 -0.201372 0.30686265
0.11844324 -0.201372 -0.05485747
0.071323991 -0.201372 0.091099866
0.19508 -0.20600565 0.13769901
0.20347001 0.096628822 0.16278461
0.14998461 0.23159805 -0.35082799
-0.044619761 0.19685578 0.33824301
-0.19717699 0.13651374 0.13352251
-0.19458562 -0.201372 0.036719278
0.20346999 0.021436367 0.088750228
0.20347001 -0.1095112 -0.094853021
0.207665 -0.040623412 0.31064504
-0.18456323 -0.201372 0.3170746
-0.207665 0.23663418 0.086580426
-0.060220182 -0.2840941 0.35082799
-0.19717699 0.15676144 0.2432059
-0.15898283 -0.17937303 -0.35082799
-0.13076368 -0.201372 0.055641934
0.0013651615 -0.201372 0.041989058
-0.207665 0.17829216 0.31758356
0.1476548 0.19406401 0.27368796
-0.207665 0.26719323 0.17871705
0.19507998 0.15369697 -0.24403021
0.207665 -0.031738721 -0.023212174
-0.14926164 0.090511858 0.35082799
0.207665 0.14811271 0.070383132
0.19507998 0.2509408 0.33809638
0.20766501 -0.18215448 0.23022896
-0.078261934 0.034323186 -0.33824301
-0.11027989 0.20558894 0.33824301
-0.207665 -0.029699292 0.21463385
0.207665 0.20948842 -0.045249671
0.19508 0.15682401 0.31405145
-0.19717699 0.15002289 0.27961251
-0.0037433803 -0.18145823 0.33824301
-0.13172747 -0.21395899 0.13760062
-0.19717699 0.1262974 0.29709864
-0.207665 0.28019637 -0.30241123
0.17186195 0.014798015 0.35082799
0.16614527 0.276887 0.055132464
-0.18231863 -0.21395898 -0.19173083
-0.20766501 -0.089168899 0.15996847
-0.16958213 -0.1620135 0.35082799
0.14617471 0.19406401 -0.10175541
-0.17587048 0.16093615 0.35082799
0.207665 0.25108749 -0.19044746
-0.017889397 0.25638959 -0.35082799
-0.207665 0.06011666 0.16115364
-0.0019442439 -0.201372 -0.17131956
-0.19717699 0.23292169 0.180738
0.10164536 -0.18269861 0.33824301
-0.207665 -0.11941447 -0.27889895
-0.19717699 0.25351441 -0.25428694
-0.117451 -0.21395899 -0.21899806
-0.19717699 -0.023045542 0.16123962
-0.207665 -0.059990574 -0.23964655
0.20532221 0.1799099 -0.294193
-0.20766498 -0.075569749 0.20901315
0.061704747 0.19597176 0.35082799
-0.207665 -0.13632637 0.1886059
-0.19353831 -0.201372 0.074954435
0.17778775 0.289473 -0.043480702
0.19507998 -0.16657341 0.029626293
0.19508 -0.12298662 0.34182894
-0.19717699 0.05346515 -0.1571596
-0.077098235 0.055246353 -0.35082799
-0.028333642 -0.20966917 0.35082799
0.097614385 -0.21395899 -0.18944982
0.18213946 -0.201372 0.30544144
0.207665 0.16557418 -0.33455089
0.070406504 -0.201372 -0.33759329
0.207665 -0.075427517 -0.33655247
-0.207665 0.27152538 0.10922272
-0.19717699 0.20780292 -0.0056951046
-0.207665 0.13171411 -0.034827888
-0.07464575 -0.081789047 0.35082799
0.20347002 0.084108531 0.14368001
0.207665 -0.20040555 -0.070439063
0.10984173 0.059625823 0.33824301
-0.0055028982 -0.12435156 0.35082799
0.11381861 0.1447268 0.35082799
0.0073758215 0.20281571 0.35082799
0.19148955 -0.201372 0.22656144
-0.16118537 -0.201372 0.09319371
0.16925631 0.289473 -0.25124887
-0.1460878 -0.201372 0.057217769
0.024592627 0.19738221 0.35082799
-0.19717699 0.14637519 -0.12744752
-0.054740138 -0.201372 -0.07172583
0.19508 0.25418115 -0.21243884
-0.01824718 -0.21395898 -0.28210521
0.14880125 0.19406401 0.053834632
0.16716382 -0.201372 0.15891533
-0.19717699 -0.19920963 0.079000115
-0.207665 -0.00091928616 -0.34201252
0.20347001 -0.11364047 -0.19067137
-0.065728605 0.075711392 -0.33824298
0.205567 -0.15297022 0.17538571
-0.207665 -0.16486441 -0.13474822
-0.207665 -0.036672533 0.2215071
-0.207665 -0.1705222 -0.34354493
0.207665 0.18427405 -0.087084755
0.19508 0.16551584 -0.34778148
0.18302074 -0.201372 0.0061376691
-0.02194215 -0.201372 -0.18002328
-0.17394873 -0.18599933 0.35082799
-0.20766498 0.17423576 0.32769093
-0.207665 -0.03842324 -0.33302817
0.20593953 0.289473 -0.053968761
0.207665 0.037754007 0.029053399
-0.030333957 -0.10124986 -0.35082799
-0.19717699 0.021171264 -0.085937649
-0.207665 0.2848427 -0.01868026
0.021073483 -0.14840347 -0.35082799
-0.17883034 0.031208262 -0.33824301
0.20347001 -0.11731835 0.29678124
-0.077496573 0.10066313 0.35082799
-0.063531265 0.18167692 0.35082799
0.20346999 -0.0093917437 0.079228029
-0.20129159 -0.201372 0.26004273
-0.19717699 -0.095189154 0.0091480613
0.207665 0.14041862 -0.0092182346
-0.13885473 -0.201372 0.14052917
-0.20341085 -0.201372 -0.024178384
-0.19717699 0.24751838 -0.048028588
-0.207665 0.038605802 -0.073481575
0.19508 0.27910039 -0.041970782
0.16721572 0.19406401 0.29418927
0.027041797 -0.201372 -0.24841359
0.19889571 0.18564001 0.11598127
-0.20527996 -0.14492315 0.35082799
-0.13969564 -0.201372 -0.18921298
-0.16645688 0.02491641 0.35082799
-0.207665 0.17517813 0.24188073
0.19508 -0.1731879 0.21849111
0.099947423 0.20160477 0.33824301
0.20347001 -0.10286889 -0.16409613
-0.207665 -0.02039358 -0.34416848
0.207665 0.072755694 -0.32892027
0.070521533 -0.15212746 0.35082799
-0.207665 0.15948169 -0.094195485
-0.207665 0.11593769 0.18010913
-0.19717699 -0.10006221 0.030338258
-0.071703844 -0.21395899 0.073836081
0.20737398 0.289473 -0.22353353
0.19508 0.27829227 -0.29004389
-0.207665 0.012245481 0.054894414
0.050359771 0.19775362 -0.33824301
0.19508 -0.029032331 -0.3424269
-0.19717699 0.0056379065 0.08024013
-0.14246742 -0.27246854 0.33824301
0.12978619 -0.201372 -0.043794744
0.045220956 0.21691275 0.35082799
-0.060273305 -0.201372 -0.13048403
-0.17083552 0.13286531 0.35082802
0.18017967 0.18147799 0.14014238
-0.19445159 -0.2709001 0.33824301
-0.14692947 -0.022916384 -0.35082799
0.052816622 -0.17638002 0.35082799
0.070505008 0.12424766 -0.33824301
-0.20120731 -0.201372 0.16527608
0.033469845 -0.28533643 0.33824301
0.08524859 -0.066495158 -0.35082799
0.20347001 -0.070072167 -0.16525479
-0.19717699 0.18047583 -0.14362392
0.159798 0.0038850456 -0.33824301
0.017269142 0.013667412 0.33824301
-0.066403292 -0.084112376 -0.33824301
0.19507998 0.12156655 0.029187037
0.14672095 0.289473 0.20267625
-0.19717699 -0.0049173459 -0.24271899
0.12210278 0.028465301 -0.33824301
-0.20488396 -0.12814757 0.33824301
-0.17160846 -0.21395898 -0.14836355
0.207665 0.097550981 0.31546742
-0.19717699 -0.17385882 -0.25700128
-0.19717699 -0.078439176 -0.13825263
-0.19717699 0.096246682 -0.011345953
0.20530795 0.19193301 -0.068065204
-0.11666644 -0.21395899 -0.086804964
0.19508 0.28520292 0.064544097
0.00028636865 0.047142703 -0.33824301
0.14032269 -0.201372 0.056534834
-0.19717698 0.26783207 0.3202154
0.19508 -0.026951142 -0.33834076
-0.207665 0.14061096 0.23173028
0.19508001 -0.19290608 -0.12874708
0.11084418 -0.2001223 0.33824301
0.19508 -0.029101647 -0.0066020014
-0.19717699 0.1833799 0.13937844
0.10906124 -0.084441535 -0.35082799
0.068418697 0.2823858 -0.33824301
-0.16653016 0.15343627 0.33824301
0.20577173 -0.21395901 0.32186663
0.207665 0.17173782 0.19226234
-0.207665 0.17534992 -0.25437123
0.036336061 0.00037832279 -0.35082799
-0.14921677 0.13714901 0.33824301
-0.207665 0.16453315 -0.18750629
0.067552455 -0.24939466 0.33824301
-0.20766501 -0.098676391 0.17237049
-0.19717699 0.16408193 -0.057173308
-0.19717699 0.20118833 -0.035526276
-0.094198883 -0.052711904 -0.35082799
-0.19717699 -0.08602874 0.095615871
0.207665 0.13918746 -0.08909376
-0.063508213 -0.15102673 -0.35082799
-0.05206763 -0.289473 0.3439185
-0.207665 -0.17365137 -0.33292058
0.095497169 -0.22885667 0.35082799
0.20347001 -0.13395353 0.22113717
0.19593225 0.18564001 -0.13862945
-0.19717699 0.24498275 0.14853969
0.03245341 -0.21395898 -0.054548979
0.13223332 -0.074316226 0.33824301
0.0029386133 -0.201372 0.18860894
-0.19838411 -0.12493031 0.35082799
0.0088435411 0.20384428 -0.35082799
0.19507998 -0.20422561 0.12726822
-0.207665 -0.13533095 0.23218346
0.14860238 -0.21395899 0.29448715
0.1936623 -0.0093440935 -0.33824301
-0.19717699 -0.18274704 -0.32485908
-0.11132488 -0.21395901 -0.067371503
0.094606481 -0.21395898 0.13274686
0.038154431 -0.242606 0.35082799
-0.13730286 -0.21395901 0.14694639
0.055238895 -0.21395899 -0.24333389
-0.207665 -0.081817046 0.034056328
-0.0092768446 0.21670642 0.35082799
0.20346999 0.06209049 -0.14217639
-0.19717699 -0.18866128 0.076755524
-0.207665 -0.15243226 0.25580102
-0.20087606 0.289473 -0.034847163
0.20707184 -0.066687889 0.000524075
-0.042171113 -0.201372 -0.0016971212
0.19508 0.27642658 -0.062234715
0.040378109 0.018103177 -0.33824301
0.11942837 -0.18628463 0.35082799
-0.207665 0.024450436 -0.22970554
0.15726835 -0.20896569 -0.33824301
0.19508001 -0.17753862 -0.31705332
0.20347001 -0.10343874 -0.27852389
-0.068641052 -0.17910701 0.35082799
0.012235986 0.21511872 -0.35082799
0.05165657 0.21202421 0.33824301
-0.11165687 -0.08754728 -0.33824301
-0.207665 -0.022971738 0.29644996
-0.098150745 0.16587821 0.35082799
0.063000277 -0.046816289 0.35082799
0.19498447 0.276887 0.080606043
0.17383905 0.289473 0.30106547
-0.01183904 -0.21395899 -0.26813304
-0.00057820976 -0.201372 -0.14414737
0.207665 -0.19294143 -0.23642418
-0.207665 0.092550479 0.13663018
0.15791786 0.25383279 0.33824301
-0.022711504 -0.21395899 0.23563626
0.16611548 0.18147799 -0.1843797
0.059412278 -0.20137201 -0.00026910752
-0.207665 0.10426222 -0.20302591
-0.207665 -0.042522188 -0.3387076
0.1959174 0.02475984 -0.294193
0.17888996 0.25676399 0.35082799
0.13281277 0.22209321 -0.33824301
-0.13510373 -0.201372 -0.33693585
-0.071222767 -0.1445137 0.35082799
0.11909056 -0.069919355 0.33824301
-0.207665 -0.108881 0.17821541
-0.02682488 -0.15436646 -0.33824301
-0.207665 0.27363771 -0.070823997
0.17814693 0.19406401 -0.26740831
0.19508001 0.28479701 0.22618787
-0.07059221 0.23234722 0.33824301
-0.18522929 0.24165833 0.33824301
-0.17975493 0.11273411 -0.33824301
-0.067031056 -0.047974676 -0.33824301
0.19507998 0.2512247 -0.13129415
-0.12765421 -0.201372 0.18191232
-0.19016725 0.10969376 -0.33824301
0.18200274 -0.201372 -0.10982203
-0.20350665 -0.201372 0.036656667
-0.071806446 0.043411024 -0.33824301
-0.055871084 -0.20137201 -0.28161165
-0.19717699 -0.096198104 0.33503491
-0.078824073 -0.13623376 0.35082799
0.19508 0.18190408 -0.20279062
-0.010820925 -0.289473 -0.34475806
-0.12294059 -0.10304358 0.33824301
-0.10343172 0.20831044 -0.35082799
0.15292725 0.289473 0.041508272
-0.095613308 -0.26803234 -0.33824301
0.091951251 0.055500105 0.33824301
0.19638535 0.13324448 0.0571604
-0.11659345 -0.14839008 0.33824301
-0.207665 -0.20070471 -0.14391515
0.067933232 -0.16764358 0.35082799
0.098176435 0.12781307 0.35082799
-0.091490828 -0.21395899 0.11436663
0.207665 0.13550355 0.27313888
0.14664213 0.276887 -0.196652
0.056065477 -0.201372 0.011458032
-0.1083704 -0.038786322 0.33824301
-0.066178344 -0.043393455 -0.33824301
0.207665 -0.016147241 0.34872341
-0.207665 0.059809033 -0.063429385
-0.207665 -0.096122026 0.15309021
0.13408378 0.018912196 -0.33824301
5.4493546e-05 0.2693547 0.35082799
0.207665 -0.044107839 0.30222782
0.14606273 -0.029549606 0.33824301
0.207665 0.22660485 0.14102985
0.19508 -0.0095087336 -0.33838746
0.19114973 -0.0032761618 0.33824301
0.18757987 0.289473 -0.014149837
0.20766501 0.26260027 -0.14976439
-0.207665 0.28689861 0.25314701
-0.057257168 0.2592836 -0.33824301
-0.19717699 0.13413629 -0.31124434
-0.19717699 -0.089181878 -0.060870066
0.19354749 -0.21395899 0.14559366
0.010618776 0.054010145 -0.35082799
0.15592109 -0.201372 0.15952115
0.20596504 0.18564001 -0.31763759
0.19508 -0.18542089 -0.30197799
-0.1204534 0.28153247 -0.33824301
-0.032452758 -0.21395899 0.16822848
0.11463423 -0.21395899 0.31206635
0.18187211 -0.16198595 -0.35082799
0.10280687 -0.21395899 -0.11397913
0.10708714 -0.073642954 0.33824301
0.067582384 0.10443196 0.33824301
0.20347001 0.066190928 0.29422364
0.19540745 0.129004 -0.19671351
-0.207665 -0.10448418 -0.051414847
0.033804823 -0.21395899 -0.16863358
0.10820816 0.13997152 -0.33824301
0.20347001 -0.018404597 -0.099245138
-0.15013446 -0.23747645 0.35082799
0.16268066 0.1432922 0.33824301
0.20299146 0.17667723 0.35082799
0.16613659 0.289473 0.10270366
-0.19717699 -0.01538489 0.1976122
-0.089685634 -0.09651719 0.35082799
-0.19717699 -0.17547113 0.12745777
-0.0050922334 0.1233214 -0.33824301
0.20347001 0.11317468 -0.096153066
-0.13569888 -0.21395899 -0.22612371
0.1545343 -0.095177643 0.33824301
0.207665 0.19927166 0.23726305
0.19507998 -0.0022501429 0.030303894
0.20347001 -0.21109569 0.2965858
0.10034671 -0.15377514 -0.33824301
-0.19717699 -0.021724897 -0.068805613
-0.1374425 0.069443695 -0.35082799
0.20346999 -0.15508692 -0.24863994
-0.19717699 -0.076366112 -0.057675138
-0.12824467 -0.201372 0.069185443
0.207665 -0.10943109 0.31258303
-0.207665 0.086035684 0.24306141
-0.207665 0.016313396 -0.026358953
0.19508001 -0.18541968 -0.30721235
-0.16153169 -0.054977536 0.35082799
0.207665 -0.21066916 0.26469243
-0.207665 0.11106492 0.20181797
-0.07825812 -0.21395898 -0.075539254
-0.19717699 0.20613612 -0.16608493
0.20633781 -0.14886925 -0.294193
-0.207665 -0.11250485 0.12133647
0.17849924 0.276887 0.14847642
-0.19717698 -0.13487005 0.28972289
-0.082932219 0.027486473 -0.35082799
0.20346999 0.068320498 0.10484551
-0.19717699 0.18541627 0.044136733
0.16606908 -0.21395898 0.23263097
-0.19717699 0.10314681 -0.23213804
0.18003339 0.276887 -0.23661382
0.16811833 0.19406399 0.052852102
0.19508 -0.16903196 0.0052869371
-0.096884303 -0.22250795 0.33824301
0.036865272 -0.049300987 -0.33824301
-0.19717699 -0.089214817 0.17453827
-0.1478361 0.015748978 0.35082799
0.14669068 -0.21395899 -0.32540473
-0.13715155 0.0035504922 0.35082799
-0.19717699 0.28715041 -0.01539132
0.20347002 0.13113132 0.27645895
-0.12911516 -0.201372 0.073181182
-0.19717699 0.029932179 0.10235577
-0.207665 -0.058999643 -0.028293192
-0.00089457259 0.20450246 0.33824301
0.207665 0.248588 0.15301479
-0.19717699 -0.16512549 0.082220048
-0.1748092 -0.22678584 -0.33824301
0.19508 0.25875896 0.040163707
0.087287262 0.055741638 0.33824301
-0.072906002 0.17703287 0.33824301
-0.065904245 0.19191527 0.35082799
0.16223162 0.25183582 -0.35082799
0.13761047 -0.201372 0.035142511
0.20143197 -0.21395899 0.20243192
-0.10636519 -0.21395899 0.0060342178
0.20347002 0.079173975 -0.18523237
-0.0011669286 0.098259568 0.35082799
0.022294126 -0.12952645 0.33824301
0.18131554 0.276887 -0.23625186
-0.042866781 -0.079504624 0.33824301
0.20346999 -0.055094045 0.18125173
0.19508 -0.2068662 0.33403182
-0.11021525 -0.21395899 -0.29491031
-0.207665 0.014103789 0.19712913
0.072516076 -0.201372 0.31135485
-0.07926473 0.033905715 0.33824301
-0.037599288 -0.201372 -0.28966999
0.20347001 0.10171769 -0.11830921
0.070377946 0.15216544 -0.33824301
0.19508 0.19997276 0.11770419
-0.207665 0.26292497 0.080228157
0.18629031 0.276887 0.26120111
-0.207665 0.19707447 0.23899162
0.17287166 -0.201372 0.20434754
-0.059780337 -0.24370131 0.33824301
-0.19717699 -0.099014044 0.26167792
0.040142838 0.070977926 0.33824301
-0.19717699 -0.023534341 -0.010822795
-0.042832807 -0.21395901 0.30640206
-0.0014830902 -0.029323988 0.35082799
0.19927502 -0.15843207 -0.11265729
0.20347001 0.1121038 0.1776751
-0.17985752 0.25343183 0.33824301
0.13201821 -0.0046129003 -0.35082799
